ply
format ascii 1.0
comment VCGLIB generated
comment author: Paraform
element vertex 786
property float x
property float y
property float z
property float nx
property float ny
property float nz
element face 0
property list uchar int vertex_indices
end_header
2.909937 0.6391316 36.47124 -0.9507836 -0.1579551 -0.2665724 
10.61158 90.69095 -21.68334 0.6906437 -0.6920254 -0.2100289 
10.69926 90.69095 -21.41921 0.6715243 -0.6955932 -0.2553531 
-9.906914 91.11976 -21.41921 -0.5435285 -0.7051166 -0.4553979 
-10.40051 91.46926 -21.41921 -0.4724253 -0.719219 -0.5094492 
-5.68351 88.23708 18.46088 -0.1701127 -0.9053621 -0.3890772 
-3.539422 6.789507 17.60324 -0.06333433 0.9979022 -0.01341768 
-10.82933 91.97741 -21.7199 -0.4903737 -0.7098621 -0.505598 
-10.82933 91.73569 -21.41921 -0.4272183 -0.689747 -0.5845799 
-1.69029 -3.649052 53.62397 -0.6963047 -0.5081196 -0.5069262 
-12.11578 92.40622 -21.45373 -0.2629524 -0.6713592 -0.6929162 
-11.68696 92.18723 -21.41921 -0.3023336 -0.6905465 -0.6570693 
-11.25815 91.9942 -21.41921 -0.3615917 -0.6926519 -0.6240872 
-12.97342 92.83503 -21.59456 -0.198285 -0.6483039 -0.7351089 
-12.97342 92.62977 -21.41921 -0.1751536 -0.6361882 -0.7513893 
-12.5446 92.51032 -21.41921 -0.2090326 -0.6528628 -0.7280629 
-0.9665138 -6.353866 47.62052 -0.4303789 0.8519937 -0.2981286 
-5.918831 1.067951 36.47124 0.9293879 -0.2835168 -0.2363392 
1.767502 -3.649052 39.47297 -0.7359207 0.6485866 0.1943094 
5.036939 74.37311 35.6136 -0.2855943 -0.4271747 -0.8578797 
-0.9665138 54.24141 -21.2526 0.04372388 0.974077 -0.2219507 
-0.1088758 54.24141 -21.11668 0.04541572 0.9774476 -0.2062368 
1.177581 54.24141 -21.32214 -0.3019993 0.8974817 -0.3214388 
-3.110602 -10.51014 55.68698 -0.5602325 0.7720594 0.3001063 
7.216901 58.52959 38.18652 -0.2159638 0.2664416 -0.9393447 
-2.252964 54.56658 -20.99039 0.3810827 0.8904963 -0.2485806 
-1.824152 54.41655 -20.99039 0.2737276 0.9381464 -0.2120252 
-1.395333 54.32024 -20.99039 0.1382536 0.9770728 -0.1619092 
-0.9665138 54.29739 -20.99039 0.03676255 0.9892874 -0.1412757 
-0.5376948 54.28745 -20.99039 0.02599185 0.9864266 -0.1621329 
0.3199432 54.25222 -20.99039 -0.02769865 0.9681866 -0.2486919 
0.7487622 54.28944 -20.99039 -0.1477852 0.9368832 -0.3168745 
1.177581 54.39589 -20.99039 -0.3229106 0.8818626 -0.3435798 
1.606394 54.59858 -20.99039 -0.4013537 0.8629811 -0.3068858 
-3.199345 55.09904 -20.99039 0.5128218 0.7947363 -0.3246661 
-2.681784 54.77808 -20.99039 0.4501709 0.8399037 -0.3031635 
2.035213 54.8153 -20.99039 -0.4504781 0.8209257 -0.350928 
2.464032 55.05862 -20.99039 -0.4592128 0.7889537 -0.4082595 
7.609853 58.52959 38.0854 -0.2448043 0.3041248 -0.9206405 
0.7487622 44.80741 34.79721 -0.009679849 0.1462965 -0.9891934 
2.892851 55.32989 -20.99039 -0.5220176 0.6926051 -0.4977908 
1.177581 44.80741 34.81556 0.05034005 0.1445484 -0.9882164 
-3.96824 55.78659 -20.99039 0.6869801 0.6850111 -0.2425243 
3.32167 55.68338 -20.99039 -0.5851278 0.6104219 -0.5338637 
3.573553 55.95666 -20.99039 -0.6156983 0.5904761 -0.5217792 
8.038667 58.52959 37.97388 -0.3238214 0.324846 -0.8886027 
-4.39706 56.20704 -20.99039 0.7230177 0.6821088 -0.1094215 
4.179308 56.3855 -21.26359 -0.7546579 0.5359221 -0.3785223 
-4.927746 56.81431 -20.99039 0.7327567 0.6799934 0.02601267 
4.303227 56.81431 -20.99039 -0.7395955 0.5271658 -0.4184432 
-5.323082 57.24312 -20.99039 0.7661536 0.6383584 0.07420987 
4.635181 57.24312 -20.99039 -0.6849199 0.6126743 -0.3943537 
-9.542875 58.9584 37.76011 0.2518808 0.1029695 -0.9622647 
-5.630659 57.67194 -20.99039 0.8454606 0.5280279 0.07989324 
5.036939 57.67194 -21.0074 -0.6562809 0.62532 -0.4222208 
-5.873117 58.10078 -20.99039 0.8365197 0.5340821 0.1224384 
-4.592079 -5.79314 47.62052 0.6405125 0.6834269 -0.350245 
-6.235661 58.52959 -20.99039 0.7114537 0.6838967 0.1616134 
5.465758 58.11438 -20.99039 -0.7169522 0.5366703 -0.4449321 
5.684631 58.52959 -20.99039 -0.7611489 0.4368249 -0.4794123 
-6.541148 58.79528 -20.99039 0.6629441 0.7000645 0.2653577 
5.966183 58.9584 -20.99039 -0.7935744 0.4026309 -0.4562105 
-7.040991 59.38721 -20.99039 0.7759769 0.531772 0.3392322 
6.129936 59.38721 -20.99039 -0.7937794 0.4121741 -0.4472437 
6.399098 59.81603 -20.99039 -0.8393937 0.3798971 -0.3887114 
-7.398786 60.03362 -20.99039 0.8277134 0.4210476 0.3709575 
6.536588 60.24487 -20.99039 -0.9089991 0.3158965 -0.2719007 
-9.114056 58.9584 37.8547 0.2040245 0.04309885 -0.9780166 
-5.254691 88.1903 18.46088 0.1343095 -0.9180853 -0.3729348 
-7.724255 60.67368 -20.99039 0.8342187 0.3800887 0.3995144 
6.689626 60.67368 -20.99039 -0.8723205 0.4167643 -0.2556643 
-7.827605 61.10249 -21.1191 0.853854 0.3075313 0.4199498 
6.942008 61.10249 -20.99039 -0.8498047 0.4562004 -0.2640327 
-8.06623 61.5313 -20.99039 0.8329146 0.2947381 0.4683832 
-8.194915 61.96012 -20.99039 0.8358904 0.3840525 0.3921618 
7.181034 61.5769 -20.99039 -0.8531429 0.4466563 -0.2695282 
7.380034 61.96012 -20.99039 -0.9059933 0.3837386 -0.1786639 
-8.460472 62.38895 -20.99039 0.7798028 0.5637856 0.2721275 
7.609853 62.38895 -21.37027 -0.877515 0.4436209 -0.1821206 
3.172536 9.644311 29.61016 -0.8670036 -0.1126071 -0.4854115 
-8.685237 62.64956 -20.99039 0.7532105 0.6140176 0.2359157 
7.609853 62.52163 -20.99039 -0.8810346 0.4534735 -0.1346849 
7.787473 62.81777 -20.99039 -0.8209777 0.5562855 -0.1286156 
8.038667 63.18739 -20.99039 -0.6977572 0.6953209 -0.1722318 
-9.330079 63.67539 -20.99039 0.8382958 0.4517867 0.3052032 
-9.114056 63.26302 -20.99039 0.8128557 0.4851896 0.3222682 
8.467485 63.49052 -20.99039 -0.5900713 0.7566316 -0.2816463 
8.896304 63.67539 -21.31063 -0.6825732 0.6732666 -0.2842641 
-9.542875 64.10423 -21.05518 0.8286952 0.5036737 0.2440838 
9.102805 64.10423 -20.99039 -0.7450954 0.5553923 -0.3692861 
-9.862459 64.53304 -20.99039 0.6578733 0.7479924 0.08780698 
9.410306 64.53304 -20.99039 -0.6639563 0.6040388 -0.4407938 
-11.68696 64.96186 -21.17777 0.213235 0.8389959 -0.5006164 
-0.5376948 -6.058922 47.62052 -0.5759767 0.7741837 -0.2624699 
-10.40051 64.81019 -20.99039 0.3796398 0.9091297 -0.1713383 
9.753942 64.84807 -20.99039 -0.4389431 0.7588459 -0.4811256 
10.18276 64.96186 -21.03208 -0.1978241 0.8162031 -0.5428424 
-8.685237 58.9584 37.93052 0.1495501 -0.03141043 -0.9882551 
-8.256424 58.9584 37.98803 0.1453707 -0.04111297 -0.9885226 
-12.11578 65.21863 -20.99039 0.2843939 0.8367316 -0.4679746 
-11.25815 65.008 -20.99039 0.08237766 0.9024554 -0.4228335 
10.61158 65.07452 -20.99039 -0.08332914 0.7894514 -0.6081306 
-12.97342 65.58635 -20.99039 0.4545194 0.857318 -0.2416981 
-4.825879 69.67885 37.14702 0.4684048 0.06951773 -0.8807747 
-0.2211462 -5.79314 47.62052 -0.6771578 0.7098733 -0.1937453 
-4.825879 88.35587 18.46088 0.4377222 -0.8502525 -0.2923523 
-5.879929 -1.076144 41.18824 0.9689002 -0.2456365 -0.0299179 
-7.827605 58.9584 38.05377 0.195534 -0.04230785 -0.9797839 
-7.398786 58.9584 38.14521 0.2122326 -0.05206188 -0.9758313 
-4.441981 69.67885 37.32888 0.3821725 0.04111851 -0.9231757 
-5.019498 -5.364321 47.62052 0.6574215 0.6830174 -0.3182518 
-5.769205 1.49677 36.47124 0.9033067 -0.3435301 -0.2569516 
8.038667 58.9584 38.15476 -0.3087701 0.3263986 -0.8933784 
-6.112329 -9.652505 57.09192 0.6997569 -0.08355682 -0.7094777 
2.73789 1.49677 36.47124 -0.9253229 -0.2074987 -0.317367 
-9.542875 59.38721 37.85055 0.2001227 0.2745794 -0.9405089 
-13.06604 75.6823 -20.99039 0.7928947 -0.5673339 0.2223739 
-9.114056 59.38721 37.92868 0.1559707 0.2682714 -0.9506332 
-12.73949 76.11113 -20.99039 0.8089385 -0.540565 0.2311017 
-12.5446 76.41396 -20.99039 0.8205919 -0.498785 0.2790027 
-12.11578 76.96877 -21.365 0.8789248 -0.3993329 0.2608149 
-12.24869 76.96877 -20.99039 0.8595126 -0.4158392 0.29718 
-12.11578 77.27985 -20.99039 0.9009927 -0.3427367 0.265977 
-11.94028 77.82639 -20.99039 0.9678919 -0.2066368 0.1431308 
-8.685237 59.38721 37.97655 0.1257599 0.2719733 -0.9540518 
-8.256424 59.38721 38.04586 0.165494 0.2840718 -0.9444125 
-11.89917 78.25523 -20.99039 0.9970079 0.07726022 0.002478126 
-3.110602 -2.442341 53.19515 -0.2808697 -0.7835138 -0.5542728 
-12.01705 78.68404 -20.99039 0.8928797 0.3931265 -0.2195845 
-12.23491 79.11285 -20.99039 0.7733155 0.4848165 -0.408578 
-8.685237 16.93422 28.87873 0.1551265 0.30152 -0.9407558 
-8.256424 16.93422 28.93664 0.1769859 0.2422852 -0.9539255 
-7.827605 16.93422 29.02847 0.2304908 0.1480359 -0.9617481 
5.036939 82.5434 -21.06249 -0.1453869 -0.7933412 0.5911618 
5.465758 82.5434 -21.01557 0.04285674 -0.7880992 0.6140545 
-1.907016 2.354401 27.89488 0.2531556 0.7860122 0.564001 
3.750489 82.91299 -20.99039 -0.2139496 -0.8802802 0.4234764 
4.179308 82.80096 -20.99039 -0.2240048 -0.8703512 0.4385323 
4.60812 82.6916 -20.99039 -0.2088816 -0.8427125 0.4961896 
5.894578 82.62811 -20.99039 0.300339 -0.755084 0.5827903 
-7.827605 59.38721 38.13681 0.1959337 0.2912092 -0.9363798 
6.4289 82.97221 -20.99039 0.5636988 -0.6927041 0.4498942 
-5.68351 -3.778058 40.75943 0.8610179 0.4755485 0.1802823 
-1.395333 2.142084 27.89488 0.1643535 0.706684 0.6881754 
2.035213 83.29508 -20.99039 -0.3517806 -0.907365 0.2300851 
2.464032 83.1431 -20.99039 -0.2196069 -0.9336193 0.2830687 
2.892851 83.08097 -20.99039 -0.1437911 -0.9195789 0.3656483 
6.752215 83.26137 -20.99039 0.7482359 -0.5924464 0.2985807 
-1.395333 2.354401 27.63288 0.1534099 0.8755686 0.4580884 
-5.590518 1.925582 36.47124 0.8801519 -0.3769947 -0.2884576 
-1.824152 83.72748 -20.99039 -0.1185986 -0.9620109 0.2459054 
-1.395333 83.72993 -20.99039 0.03709418 -0.9732934 0.2265482 
-0.9665138 83.75943 -20.99039 0.02713059 -0.966409 0.2555731 
-0.5376948 83.74946 -20.99039 -0.0290399 -0.9612582 0.2741157 
-0.1088758 83.73221 -20.99039 -0.06731273 -0.964613 0.2549328 
0.3199432 83.69804 -20.99039 -0.1123762 -0.9648921 0.237392 
0.7487622 83.63825 -20.99039 -0.134521 -0.9597378 0.2465918 
1.177581 83.59613 -20.99039 -0.1597285 -0.9594212 0.2323742 
1.606394 83.49335 -20.99039 -0.31542 -0.9256058 0.2091985 
7.043192 83.82987 -20.99039 0.9240415 -0.3576692 0.1349808 
-3.96824 84.25868 -21.28381 -0.2374101 -0.8720517 0.4279746 
-3.110602 84.18527 -20.99039 -0.2627428 -0.911693 0.3158831 
-2.681784 84.04005 -20.99039 -0.3512877 -0.8888906 0.2940586 
-2.252964 83.84027 -20.99039 -0.3187461 -0.9067745 0.2759728 
-4.39706 84.50804 -20.99039 -0.3955171 -0.8663409 0.3049911 
-3.96824 84.37991 -20.99039 -0.2360017 -0.9265807 0.2928335 
-3.539422 84.28603 -20.99039 -0.2146774 -0.9227968 0.3199371 
7.181034 84.31561 -20.99039 0.958351 -0.2695765 0.0942969 
7.286985 84.68749 -20.99039 0.9687247 -0.2381731 0.06961359 
-0.9665138 2.112947 27.89488 0.0005790807 0.716405 0.6976843 
-0.9665138 2.354401 27.59461 0.01059047 0.8884991 0.4587559 
-4.825879 84.76854 -20.99039 -0.5622627 -0.7682603 0.3060013 
7.370354 85.1163 -20.99039 0.9827213 -0.1841481 0.0186645 
-0.5376948 2.14457 27.89488 -0.08728104 0.763018 0.6404574 
-5.652884 85.54511 -20.99039 -0.7438182 -0.634295 0.2107237 
-5.254691 85.13718 -20.99039 -0.6549662 -0.6997777 0.2851849 
7.444158 85.54511 -20.99039 0.9833053 -0.1819631 -0.0002301291 
-5.969848 85.97395 -20.99039 -0.8062055 -0.5694898 0.160356 
7.529488 85.97395 -20.99039 0.9687775 -0.2431951 -0.0482333 
-0.1088758 2.218597 27.89488 -0.2245098 0.77816 0.5865682 
-6.112329 86.185 -20.99039 -0.8153667 -0.5644326 0.1288138 
-6.266664 86.40276 -20.99039 -0.8101289 -0.5803913 0.08268672 
7.609853 86.24189 -20.99039 0.9464256 -0.3137974 -0.0762217 
2.652176 1.925582 36.47124 -0.9102199 -0.2293816 -0.3447953 
-6.570982 86.83157 -20.99039 -0.8100138 -0.5853059 0.03598256 
7.823052 86.83157 -20.99039 0.9208905 -0.3804341 -0.0850334 
-5.214479 0.6391316 40.75943 0.8046048 -0.5589903 -0.2003521 
-6.885691 87.2604 -20.99039 -0.800418 -0.5981712 -0.03901547 
8.02112 87.2604 -20.99039 0.8662792 -0.4748422 -0.1551942 
-7.207435 87.68921 -20.99039 -0.8078319 -0.5784521 -0.11314 
8.30669 87.68921 -20.99039 0.8138602 -0.5342104 -0.2285843 
-7.398786 87.96803 -20.99039 -0.8050675 -0.5666014 -0.1755822 
8.467485 88.11804 -21.32259 0.8117222 -0.51845 -0.2689177 
8.593673 88.11804 -20.99039 0.7965103 -0.5383434 -0.2752412 
-7.800691 88.54686 -20.99039 -0.7846909 -0.5389555 -0.3062469 
-8.104313 88.97567 -20.99039 -0.7357661 -0.5424013 -0.4055231 
8.896304 88.56922 -20.99039 0.7699643 -0.5642557 -0.2979437 
-5.385652 2.354401 36.47124 0.8104389 -0.4698026 -0.3499635 
2.521004 2.354401 36.47124 -0.8693303 -0.3161521 -0.379885 
-1.824152 61.5313 39.33064 -0.006125957 -0.001777718 -0.9999797 
-8.446689 89.40448 -20.99039 -0.675074 -0.574006 -0.4634569 
9.325123 89.11752 -20.99039 0.7251297 -0.6201914 -0.2992483 
-8.685237 89.83332 -21.18941 -0.6684456 -0.6041352 -0.4338215 
9.753942 89.5778 -20.99039 0.6893556 -0.6663771 -0.2841311 
-9.247335 90.26213 -20.99039 -0.5968784 -0.6541529 -0.4645643 
10.18276 90.01431 -20.99039 0.6760459 -0.6788718 -0.2865223 
-9.542875 90.69095 -21.23202 -0.58279 -0.6762317 -0.450629 
10.61158 90.44267 -20.99039 0.6573917 -0.6915786 -0.2992576 
-10.36538 91.11976 -20.99039 -0.4015132 -0.6984398 -0.5924263 
-2.874087 2.78322 27.89488 0.4593504 0.8307585 0.3143844 
-11.25917 91.54857 -20.99039 -0.3121148 -0.6555787 -0.6876052 
-10.82933 91.34898 -20.99039 -0.3403996 -0.6855282 -0.6435676 
-12.11578 91.97741 -21.0824 -0.2161024 -0.6551924 -0.7238941 
-11.68696 91.97741 -21.21542 -0.2587826 -0.6699783 -0.6958165 
-11.68696 91.74101 -20.99039 -0.2528872 -0.6661926 -0.7015949 
3.750489 55.95666 39.10994 -0.1381218 0.05578066 -0.9888431 
-5.254691 2.78322 36.17287 0.7769328 -0.5179921 -0.357854 
-12.97342 92.40622 -21.23268 -0.1733188 -0.630268 -0.7567846 
-12.97342 92.11027 -20.99039 -0.1594457 -0.6209631 -0.7674516 
-5.092893 2.78322 36.47124 0.724572 -0.5536088 -0.4105028 
-12.5446 92.00842 -20.99039 -0.1710492 -0.6370501 -0.7516045 
3.056726 -0.2185064 36.04243 -0.9892373 0.08991975 -0.1154296 
0.3199432 2.394076 27.89488 -0.352678 0.809144 0.4700044 
0.1458379 -5.364321 47.62052 -0.8052635 0.5786077 -0.1294748 
0.7487622 2.583511 27.89488 -0.4595407 0.8132681 0.3569556 
7.609853 53.38376 37.72324 -0.2694369 0.2267692 -0.9359378 
-5.487992 -4.935503 47.62052 0.6980802 0.700112 -0.1500909 
-2.222223 54.67022 -20.56157 0.4207724 0.898259 -0.1268123 
-1.824152 54.51134 -20.56157 0.3337975 0.9390109 -0.08269143 
-1.395333 54.37366 -20.56157 0.2023522 0.9786317 -0.03651785 
-0.9665138 54.3279 -20.56157 0.05321421 0.9985185 0.01136053 
-0.5376948 54.32167 -20.56157 -0.01593448 0.9998451 0.007480725 
-0.1088758 54.3379 -20.56157 -0.03606626 0.9969277 -0.06953141 
0.3199432 54.35446 -20.56157 -0.09455153 0.9822673 -0.1618982 
0.7487622 54.4146 -20.56157 -0.1860903 0.9648607 -0.185511 
1.177581 54.53726 -20.56157 -0.3107226 0.9396165 -0.1434298 
1.606394 54.67022 -20.71762 -0.4265527 0.8883749 -0.1698322 
-5.110548 -0.2185064 43.76116 0.7556373 -0.6377829 -0.1491486 
-2.681784 54.91327 -20.56157 0.4883583 0.8646874 -0.1175664 
-5.254691 -5.14203 47.62052 0.6332473 0.722141 -0.2784067 
2.035213 54.97198 -20.56157 -0.5357216 0.8272007 -0.1695327 
5.465758 74.39586 35.42282 -0.4956297 -0.4353394 -0.7515523 
0.3199432 -5.068393 47.62052 -0.8871247 0.4542986 -0.08137871 
-3.59001 55.52785 -20.56157 0.6273029 0.7782403 -0.02886487 
-3.110602 55.17748 -20.56157 0.5427681 0.8366351 -0.07378744 
2.464032 55.26665 -20.56157 -0.5898687 0.764522 -0.2599251 
-3.539422 3.128664 27.89488 0.4822655 0.867431 0.1224068 
-3.96824 55.83623 -20.56157 0.6431883 0.7621107 0.07413448 
2.892851 55.64378 -20.56157 -0.6461431 0.6677292 -0.3696443 
3.196223 55.95666 -20.56157 -0.6349894 0.6681896 -0.3876998 
-5.862178 -4.50669 47.62052 0.8650177 0.5002968 0.03804746 
-3.110602 2.908993 27.89488 0.4520054 0.865466 0.2160084 
-4.61316 56.3855 -20.56157 0.6844484 0.7036428 0.1908328 
-4.39706 56.19015 -20.56157 0.6418816 0.7534999 0.1422186 
3.689983 56.3855 -20.56157 -0.6744006 0.6441522 -0.3609041 
1.177581 2.859356 27.89488 -0.4823289 0.8402675 0.2476071 
1.606394 3.073212 27.89488 -0.4395362 0.889476 0.1250617 
-5.061231 56.81431 -20.56157 0.6565998 0.7033622 0.2723204 
4.026736 56.81431 -20.56157 -0.7349201 0.615535 -0.2846209 
-5.499794 57.24312 -20.56157 0.7313639 0.5958261 0.3318103 
-5.254691 56.9987 -20.56157 0.6721095 0.674382 0.3057411 
4.374008 57.24312 -20.56157 -0.7293085 0.6568848 -0.191341 
-5.769333 57.67194 -20.56157 0.8291944 0.4709862 0.3010126 
4.797287 57.67194 -20.56157 -0.7210715 0.6759965 -0.1519362 
5.178233 58.10078 -20.56157 -0.7682544 0.6136364 -0.1823061 
-6.385893 58.52959 -20.56157 0.6475028 0.7255875 0.2329436 
-6.112329 58.27456 -20.56157 0.7473105 0.6134301 0.2554027 
5.465758 58.53 -20.56157 -0.8546675 0.4903778 -0.1705079 
5.682836 58.9584 -20.56157 -0.8578641 0.4865231 -0.1654219 
0.3199432 0.2103126 29.58412 -0.3445954 0.4967965 0.796522 
-7.264835 59.38721 -20.56157 0.7662627 0.5236831 0.3722869 
5.928846 59.38721 -20.56157 -0.870393 0.4566366 -0.184117 
-7.514123 59.81603 -20.56157 0.8034404 0.4318983 0.4098138 
6.175497 59.81603 -20.56157 -0.8463821 0.5113078 -0.1490022 
-7.719655 60.24487 -20.56157 0.7938848 0.419668 0.4400292 
6.421207 60.24487 -20.56157 -0.8940822 0.4449654 -0.05121392 
-9.954639 69.25003 35.18479 0.4859367 -0.4882703 -0.7248846 
-7.955467 60.67368 -20.56157 0.7976479 0.393218 0.4573154 
6.622156 60.67368 -20.56157 -0.8870505 0.4572623 0.06365984 
6.863559 61.10249 -20.56157 -0.8859345 0.4587336 0.06843563 
-8.256424 61.5313 -20.65306 0.8496177 0.2548588 0.4617325 
7.068994 61.5313 -20.56157 -0.8803642 0.4690985 0.07003948 
-8.411078 61.96012 -20.56157 0.8521857 0.3157002 0.4172686 
7.314059 61.96012 -20.56157 -0.8972535 0.4350511 0.07527787 
-8.608495 62.38895 -20.56157 0.7911956 0.511407 0.335369 
7.495775 62.38895 -20.56157 -0.9013148 0.4218563 0.09833083 
7.609853 62.60767 -20.56157 -0.8495992 0.5162585 0.1079743 
-9.31073 63.24658 -20.56157 0.8148739 0.4701306 0.3390543 
-9.114056 62.95387 -20.56157 0.7577082 0.5656838 0.3253922 
8.105511 63.24658 -20.56157 -0.7467666 0.661653 0.06749066 
-5.514766 4.069677 29.61016 0.7403069 0.5861859 0.329138 
-9.514913 63.67539 -20.56157 0.8523357 0.4098598 0.3248672 
8.467485 63.64574 -20.56157 -0.7448146 0.6556866 -0.1237997 
2.338208 2.78322 36.47124 -0.8247972 -0.376177 -0.422138 
-9.714661 64.10423 -20.56157 0.8557159 0.4472547 0.2602185 
2.130952 -3.220233 39.47297 -0.8356799 0.5448843 0.06885 
8.899825 64.10423 -20.56157 -0.7742887 0.5585625 -0.2974643 
-9.95947 64.53304 -20.56157 0.7692846 0.634891 0.07151654 
9.131247 64.53304 -20.56157 -0.7699184 0.5506803 -0.3224545 
-10.82933 64.96186 -20.95815 0.2358609 0.8945637 -0.3796385 
-10.51133 64.96186 -20.56157 0.50298 0.8050833 -0.3144074 
9.325123 64.75385 -20.56157 -0.6677298 0.6471038 -0.3679585 
-12.5446 65.39067 -20.91751 0.3481539 0.8603944 -0.3721699 
-12.11578 65.39067 -20.68058 0.2287384 0.8900837 -0.394246 
-7.255518 16.93422 29.18134 0.3030146 0.0426555 -0.9520308 
-11.25815 65.17789 -20.56157 0.1725497 0.8978647 -0.4050503 
-10.82933 65.15218 -20.56157 0.2620955 0.9009861 -0.3457313 
9.753942 65.10775 -20.56157 -0.4469284 0.7734448 -0.4494865 
10.18276 65.26486 -20.56157 -0.2550741 0.8184638 -0.5148342 
10.61158 65.37462 -20.56157 -0.1640728 0.8136374 -0.5577403 
-5.68351 -4.720144 47.62052 0.7441614 0.6664932 -0.04484078 
0.5539345 -4.50669 47.62052 -0.9534394 0.2752482 -0.1232545 
-4.39706 3.602263 27.89488 0.5855396 0.8008334 0.1257347 
-12.97342 65.65881 -20.56157 0.3693137 0.921348 -0.1213483 
-12.5446 65.51831 -20.56157 0.2455515 0.9433265 -0.2232473 
-6.185858 0.2103126 36.04243 0.9852573 -0.134961 -0.1051353 
-3.96824 3.357767 27.89488 0.4934162 0.8673586 0.06503358 
2.035213 3.314099 27.89488 -0.4901671 0.871607 0.006122704 
2.798632 88.54686 18.46088 -0.2522091 -0.9265015 -0.2792593 
2.464032 3.548544 27.89488 -0.6085438 0.7904864 -0.06932343 
4.179308 69.29364 37.32888 -0.2653171 0.08230623 -0.9606417 
8.038667 53.38376 37.56943 -0.2326117 0.188591 -0.9541097 
-9.971694 59.81603 37.90728 0.3158334 0.3013743 -0.8996792 
-9.542875 59.81603 38.02153 0.2133394 0.3304511 -0.9193957 
-8.685237 13.50368 28.63285 0.3282876 0.1487596 -0.9327904 
-4.737289 3.212039 36.47124 0.6783739 -0.5685206 -0.4653957 
-6.541148 -10.08132 55.76336 0.8742709 0.3836965 0.2973674 
-8.636258 59.81603 38.18652 0.150153 0.3700425 -0.9168003 
-13.18126 75.6823 -20.56157 0.7742788 -0.5948644 0.215937 
3.32167 88.41086 18.46088 -0.2481707 -0.9343556 -0.2557162 
-12.97342 75.92973 -20.56157 0.7952653 -0.5628082 0.2253886 
-12.5446 76.69136 -20.56157 0.8405231 -0.4518969 0.2988481 
-12.39646 76.96877 -20.56157 0.8483021 -0.4362477 0.3001191 
-4.889815 15.21895 29.61016 0.2511053 0.1950554 -0.9481031 
-12.11578 77.57166 -20.56157 0.8882217 -0.4128653 0.2015056 
-11.98679 77.82639 -20.56157 0.93221 -0.3438037 0.1130638 
-11.91203 78.25523 -20.56157 0.9968206 -0.07239178 -0.0332871 
1.606394 44.80741 34.83972 -0.03096512 0.1719474 -0.9846193 
-11.93366 78.68404 -20.56157 0.9521264 0.2047204 -0.2270348 
-5.878696 -2.791414 39.47297 0.8819221 0.4211912 0.2116871 
8.467485 19.05541 28.75252 -0.4224386 0.3496351 -0.8362421 
-12.5446 79.54166 -20.97711 0.6052344 0.5880915 -0.5365071 
-12.32754 79.54166 -20.56157 0.7348759 0.5539985 -0.3912071 
-12.11578 79.17838 -20.56157 0.8418236 0.3936521 -0.3692844 
-12.97342 79.9705 -20.90934 0.5788839 0.5972713 -0.555122 
-12.5446 79.78519 -20.56157 0.6578016 0.6219014 -0.4248948 
-13.17344 80.39931 -20.56157 0.6485875 0.6282189 -0.4297386 
-1.74169 -4.077871 54.05279 -0.6896908 -0.4055624 -0.5998713 
2.035213 3.640858 36.12211 -0.769375 -0.4869856 -0.4134092 
-4.825879 3.95241 27.89488 0.649704 0.69778 0.3016419 
2.892851 4.007983 27.89488 -0.8624521 0.5027614 0.05837271 
4.60812 82.90105 -20.56157 -0.1494013 -0.9068019 0.3941947 
5.036939 82.84644 -20.56157 -0.06734529 -0.8842322 0.4621668 
5.465758 82.85574 -20.56157 0.09838893 -0.8570895 0.5056847 
1.879204 83.40102 -20.56157 -0.3648082 -0.9310649 0.005751447 
2.464032 83.2272 -20.56157 -0.1411458 -0.9865693 0.08221289 
2.892851 83.21595 -20.56157 -0.02725917 -0.9841149 0.1754275 
3.32167 83.20734 -20.56157 -0.1222831 -0.9539736 0.2738272 
3.750489 83.10696 -20.56157 -0.2232143 -0.9204338 0.3209004 
4.179308 82.98865 -20.56157 -0.2098136 -0.9114404 0.3539132 
6.323397 83.1727 -20.56157 0.4619857 -0.798162 0.3866611 
6.687665 83.40102 -20.56157 0.6773069 -0.6727027 0.29787 
3.972895 16.93422 29.18134 -0.4464119 -0.070692 -0.8920308 
4.60812 16.93422 28.93972 -0.2884631 0.1666183 -0.9428825 
5.036939 16.93422 28.85143 -0.1221606 0.2164313 -0.9686249 
3.750489 88.28858 18.46088 -0.384259 -0.901138 -0.2007367 
-4.39706 88.64904 18.46088 0.4320884 -0.8683371 -0.2434963 
-1.395333 83.80998 -20.56157 0.05055884 -0.9548064 0.2928966 
-0.5376948 83.82987 -20.68937 -0.03198543 -0.9463551 0.3215414 
0.3199432 83.77908 -20.56157 -0.1449391 -0.9430071 0.2995501 
0.7487622 83.7009 -20.56157 -0.1819509 -0.9556121 0.2317309 
1.177581 83.63288 -20.56157 -0.1982339 -0.9705198 0.1370935 
1.606394 83.51883 -20.56157 -0.3493909 -0.9361292 0.039852 
6.979324 83.82987 -20.56157 0.8775513 -0.4461458 0.1756635 
-9.971694 69.67885 35.02551 0.5150624 -0.09622854 -0.851734 
-2.681784 84.13512 -20.56157 -0.3557602 -0.876779 0.3235635 
-2.252964 83.9398 -20.56157 -0.3429711 -0.8874136 0.3080062 
-0.9665138 83.85816 -20.56157 0.08010742 -0.9357803 0.3433628 
7.110886 84.25868 -20.56157 0.9584503 -0.26634 0.1021572 
5.465758 16.93422 28.84099 -0.04746917 0.2597683 -0.9645036 
-4.499822 84.68749 -20.56157 -0.4683886 -0.8191012 0.3311879 
-3.96824 84.47179 -20.56157 -0.2521427 -0.9148844 0.3152945 
-3.539422 84.39185 -20.56157 -0.1959651 -0.9254906 0.3241373 
-3.110602 84.29009 -20.56157 -0.2674292 -0.9035849 0.3346879 
7.181034 84.5351 -20.56157 0.9583071 -0.2685243 0.09768354 
-4.825879 84.93693 -20.56157 -0.5835103 -0.7482947 0.3155484 
-5.68351 -3.123995 39.47297 0.7572079 0.564874 0.3279536 
7.351817 85.1163 -20.56157 0.9698257 -0.2390549 0.04786305 
-10.40051 79.11285 30.68197 0.09446787 -0.6484073 -0.7554097 
-5.254691 85.28604 -20.56157 -0.6293986 -0.7401221 0.2368055 
7.444464 85.54511 -20.56157 0.9727901 -0.2315373 -0.008367876 
-5.68351 85.68899 -20.56157 -0.7288287 -0.6731222 0.1253599 
-5.906223 85.97395 -20.56157 -0.7883603 -0.6124148 0.05861878 
-6.234581 86.40276 -20.56157 -0.7794441 -0.6264698 0.001622588 
7.609853 86.13648 -20.56157 0.9399967 -0.3301044 -0.08623968 
7.71606 86.40276 -20.56157 0.9287438 -0.3512286 -0.1186318 
-5.254691 4.45302 27.89488 0.7687132 0.5085573 0.3878781 
-6.583046 86.83157 -20.56157 -0.7673433 -0.6350922 -0.08855628 
7.871354 86.83157 -20.56157 0.8961034 -0.4137727 -0.160595 
-9.971694 79.11285 30.68798 0.063825 -0.6594866 -0.7490019 
8.122259 87.2604 -20.56157 0.8172945 -0.5338967 -0.2167582 
-3.96824 88.80228 18.46088 0.2246978 -0.9389594 -0.2605112 
-7.312299 87.68921 -20.56157 -0.7466674 -0.6137404 -0.2565354 
3.087276 4.498496 27.89488 -0.9251632 0.3671023 0.09648179 
-7.671047 88.11804 -20.56157 -0.7154824 -0.6036319 -0.3517293 
-5.460203 4.927309 27.89488 0.9122121 0.2968879 0.2823592 
8.731848 88.11804 -20.56157 0.7831277 -0.5629132 -0.2642719 
-9.542875 78.96333 30.89661 0.2220595 -0.6255057 -0.747952 
-8.037966 88.54686 -20.56157 -0.6687711 -0.5807368 -0.464209 
-1.395333 -5.79314 43.7037 -0.2731101 0.8532976 -0.4441779 
9.05407 88.54686 -20.56157 0.7467318 -0.5896437 -0.3077534 
-8.402503 88.97567 -20.56157 -0.6413265 -0.5510242 -0.5339219 
3.242148 4.927309 27.89488 -0.9355215 0.3416444 0.08988136 
9.397054 88.97567 -20.56157 0.7287775 -0.6022975 -0.3257623 
1.861868 3.640858 36.47124 -0.6868379 -0.5576535 -0.4661289 
-8.779334 89.40448 -20.56157 -0.6511965 -0.5450294 -0.5280966 
8.328396 79.11285 30.89661 -0.7044281 -0.4778311 -0.5248413 
9.763795 89.40448 -20.56157 0.6860342 -0.6526328 -0.3216015 
-9.114056 89.82325 -20.56157 -0.6031443 -0.5932785 -0.5331393 
-9.114056 79.54166 30.66314 0.6404562 -0.5093778 -0.5747609 
-8.981517 79.54166 30.89661 0.8168722 -0.3897927 -0.425184 
10.19927 89.83332 -20.56157 0.6521015 -0.6743669 -0.3463999 
-9.542875 90.18192 -20.56157 -0.4977176 -0.6523795 -0.5715576 
-5.254691 3.818893 29.61016 0.6256726 0.6732959 0.3939622 
10.61158 90.26213 -20.61705 0.6311128 -0.6795647 -0.3740169 
1.606394 4.069677 36.26795 -0.5567294 -0.626535 -0.5454414 
-9.971694 90.69095 -20.7861 -0.472257 -0.6697639 -0.573053 
-10.30696 90.69095 -20.56157 -0.3414502 -0.6578929 -0.6712589 
-11.39874 91.11976 -20.56157 -0.2476616 -0.6205163 -0.7440587 
-10.82933 91.11976 -20.76655 -0.2995051 -0.6544465 -0.6942596 
-10.82933 90.90212 -20.56157 -0.2595472 -0.654493 -0.7101225 
-5.565572 5.356128 27.89488 0.9730119 0.1814616 0.1425469 
-12.5446 91.54857 -20.60952 -0.1335515 -0.617462 -0.7751804 
3.396949 5.356128 27.89488 -0.9632849 0.2629271 0.05432933 
-12.11578 91.54857 -20.68824 -0.1809306 -0.6320118 -0.7535417 
1.357635 4.069677 36.47124 -0.4625773 -0.6556623 -0.5967656 
-11.68696 91.54857 -20.80503 -0.2476897 -0.6398934 -0.727452 
-3.96824 4.080968 36.47124 0.4869792 -0.6708776 -0.5592624 
-5.634838 5.784946 27.89488 0.9902304 0.1376518 0.02226334 
3.495769 5.784946 27.89488 -0.9826121 0.1845166 -0.02066873 
-6.034283 -4.077871 47.62052 0.9548926 0.2787749 0.1022967 
-8.277255 80.39931 30.89661 0.472538 -0.6542387 -0.5904909 
6.323397 80.39931 30.8223 -0.2064792 -0.6921005 -0.6916381 
6.752215 80.21915 30.89661 -0.1879463 -0.7124875 -0.6760457 
-9.830599 70.10768 35.18479 0.5152357 0.1761023 -0.8387612 
0.6389711 -4.077871 47.62052 -0.974071 0.1219678 -0.1905509 
-1.395333 61.5313 39.29694 -0.2166502 0.02226383 -0.9759954 
7.609853 79.97464 30.89661 -0.3525083 -0.6472092 -0.6759128 
-9.971694 60.24487 38.03509 0.3263159 0.217205 -0.9199674 
-7.827605 80.82813 30.72882 0.353341 -0.6669697 -0.6559737 
5.036939 80.82813 30.88819 -0.2981198 -0.7558668 -0.5829152 
-5.663983 6.213766 27.89488 0.9972974 0.06876321 0.02587453 
0.6555848 -3.649052 47.62052 -0.9732279 -0.01166849 -0.2295461 
-10.04856 70.53649 35.18479 0.5196885 0.2181553 -0.8260339 
-5.254691 74.82467 35.31041 0.5671424 -0.4459397 -0.6924502 
5.465758 80.62376 30.89661 -0.3008639 -0.7279137 -0.6161352 
-1.824152 54.4886 -20.13275 0.3471264 0.9337819 0.08691798 
-1.395333 54.34697 -20.13275 0.2319025 0.9698162 0.07535031 
-0.9665138 54.28123 -20.13275 0.08074965 0.9912041 0.1048511 
-0.5376948 54.2773 -20.13275 -0.04003595 0.9918775 0.1207321 
-0.1088758 54.3119 -20.13275 -0.123828 0.9885299 0.0864586 
0.3199432 54.3881 -20.13275 -0.1685697 0.9854394 0.02221443 
0.7487622 54.47198 -20.13275 -0.1783906 0.9836983 -0.02267926 
1.177581 54.54777 -20.13275 -0.2654909 0.9640856 0.007307593 
3.55968 6.213766 27.89488 -0.9851646 0.1339377 -0.1072917 
-2.681784 54.89108 -20.13275 0.4530241 0.8813994 0.1338066 
-2.252964 54.69456 -20.13275 0.4315469 0.8948429 0.11412 
1.606394 54.69946 -20.13275 -0.4458752 0.8947288 0.02560777 
2.035213 54.99084 -20.13275 -0.5799453 0.8138701 0.03576329 
-9.114056 60.03847 38.18652 0.1772917 0.2967879 -0.9383414 
-3.539422 4.288173 36.47124 0.3239189 -0.7332824 -0.5978072 
-3.539422 55.39795 -20.13275 0.5611925 0.8061972 0.1873743 
2.464032 55.32795 -20.13275 -0.6665269 0.7454426 0.007570316 
2.665933 55.52785 -20.13275 -0.7163718 0.6976613 0.008957806 
-3.96824 55.71742 -20.13275 0.5914729 0.7743452 0.2248317 
2.892851 55.81609 -20.13275 -0.7225928 0.6907159 0.02776799 
0.7089276 -5.364321 42.04588 -0.764809 0.6325684 -0.1221659 
-4.793711 56.3855 -20.13275 0.6342185 0.7241281 0.2709345 
3.32167 56.19815 -20.13275 -0.671784 0.7392394 0.04723819 
5.894578 80.45834 30.89661 -0.2488566 -0.6969985 -0.6725053 
-3.96824 -7.937236 57.24469 -0.299001 -0.2564 -0.9191612 
-5.300762 56.81431 -20.13275 0.6514181 0.6968246 0.3001497 
3.750489 56.60718 -20.13275 -0.7028024 0.707697 0.07234395 
3.97301 56.81431 -20.13275 -0.6680387 0.73008 0.143901 
-6.969967 81.25694 30.69477 0.2408701 -0.6873324 -0.6852414 
-3.539422 88.85329 18.46088 0.08517247 -0.9508922 -0.297573 
-5.720578 57.24312 -20.13275 0.7947327 0.5460662 0.2649748 
4.179308 57.00524 -20.13275 -0.692484 0.6944505 0.1954595 
2.379359 -2.791414 39.47297 -0.9190467 0.3925915 -0.03500137 
-5.937368 57.67194 -20.13275 0.8594695 0.4307916 0.2751923 
4.60812 57.43311 -20.13275 -0.6887447 0.6800744 0.2512563 
-6.541148 81.25694 30.82226 0.177309 -0.7145711 -0.6767198 
-6.136835 58.10078 -20.13275 0.8068402 0.534645 0.2513241 
5.036939 57.8733 -20.13275 -0.7302163 0.6325567 0.2581785 
-6.16941 81.25694 30.89661 0.09018622 -0.7445144 -0.6614868 
5.519631 58.52959 -20.13275 -0.8141363 0.5080041 0.2812718 
-6.969967 58.9584 -20.48496 0.6753939 0.6762666 0.2941196 
-7.103215 58.9584 -20.13275 0.6697283 0.7124777 0.2093791 
-6.541148 58.55706 -20.13275 0.6601136 0.7293147 0.1798614 
5.767374 58.9584 -20.13275 -0.8756197 0.4232379 0.2327226 
-5.68351 6.557261 27.89488 0.9923567 0.1046216 0.06543981 
-7.464602 59.38721 -20.13275 0.7768738 0.5600412 0.2877863 
3.606244 6.642585 27.89488 -0.9771174 0.1088635 -0.1827301 
5.943569 59.38721 -20.13275 -0.8760377 0.4559776 0.1569789 
4.231635 69.67885 37.32888 -0.2639761 -0.03791898 -0.9637836 
-7.729463 59.81603 -20.13275 0.7865538 0.4960558 0.3677797 
3.750489 81.25694 30.83064 -0.1812301 -0.7602779 -0.6238055 
-7.993365 60.24487 -20.13275 0.7688687 0.4458135 0.458357 
6.323397 59.93953 -20.13275 -0.8048336 0.5415701 0.2427853 
6.524154 60.24487 -20.13275 -0.8077971 0.5035495 0.3064339 
4.179308 81.08004 30.89661 -0.2103343 -0.7697743 -0.6026666 
6.78706 60.67368 -20.13275 -0.8052089 0.4629219 0.3705965 
4.179308 55.95666 39.05939 -0.1388696 0.08541194 -0.9866205 
-8.256424 61.10249 -20.3923 0.8161907 0.3200833 0.4810192 
-8.411206 61.10249 -20.13275 0.8347404 0.2959581 0.4643461 
4.60812 69.67885 37.20226 -0.380276 -0.02453019 -0.9245476 
7.000552 61.10249 -20.13275 -0.8157786 0.4268334 0.39028 
-8.534634 61.5313 -20.13275 0.8492327 0.2228829 0.478672 
7.235726 61.5313 -20.13275 -0.8068036 0.4303864 0.404766 
-9.971694 60.67368 38.09972 0.320204 0.08283068 -0.9437206 
-8.62914 61.96012 -20.13275 0.8453676 0.2831162 0.4529888 
7.453104 61.96012 -20.13275 -0.8277298 0.3999315 0.3935967 
-9.694015 60.67368 38.18652 0.2726861 0.06428818 -0.9599527 
4.60812 80.96778 30.89661 -0.2317038 -0.7834318 -0.5766698 
0.6244085 -3.220233 47.62052 -0.9528911 -0.1450053 -0.2664055 
-8.830377 62.38895 -20.13275 0.7835509 0.4839571 0.3896581 
-5.770349 7.071404 27.89488 0.9889668 0.1481283 -0.001678048 
7.657586 62.38895 -20.13275 -0.7989588 0.4192934 0.4311125 
-6.054533 -2.791414 47.62052 0.980121 -0.1876031 0.06455962 
-9.542875 60.34151 38.18652 0.234872 0.2032757 -0.9505336 
-9.114056 62.73552 -20.13275 0.7532871 0.5796669 0.3107169 
7.889801 62.81777 -20.13275 -0.7597629 0.5087638 0.40487 
3.648774 7.071404 27.89488 -0.9662898 0.1187491 -0.2284353 
-9.468432 63.24658 -20.13275 0.8376821 0.4664885 0.2840371 
8.215199 63.24658 -20.13275 -0.7493736 0.5663199 0.3431049 
-5.254691 81.68575 30.55458 0.1413432 -0.6710454 -0.7278188 
-5.845538 7.500223 27.89488 0.9667123 0.2136691 -0.1407579 
-9.666142 63.67539 -20.13275 0.8876224 0.3746703 0.2678592 
8.533876 63.67539 -20.13275 -0.8306677 0.5095858 0.2243067 
-5.254691 81.30762 30.89661 0.105677 -0.7022318 -0.7040617 
-4.825879 81.68575 30.64417 0.1500925 -0.6726837 -0.7245474 
-9.829704 64.10423 -20.13275 0.9070688 0.3714966 0.1980315 
8.779938 64.10423 -20.13275 -0.8655329 0.5008333 0.004339436 
3.750489 7.500223 27.72624 -0.9591746 0.1414302 -0.2449111 
-9.971694 64.46983 -20.13275 0.9037107 0.4192258 0.08692883 
9.01761 64.53304 -20.13275 -0.848619 0.5179005 -0.1078188 
-4.39706 81.52624 30.89661 0.1053283 -0.7323943 -0.6726846 
-3.96824 81.55034 30.89661 0.02282097 -0.7339095 -0.6788637 
-11.68696 65.39067 -20.42895 0.233117 0.8669674 -0.4404815 
-11.25815 65.39067 -20.14535 0.2789264 0.8585796 -0.4301639 
-10.82933 65.27115 -20.13275 0.3151608 0.8936487 -0.3194771 
-10.40051 65.09906 -20.13275 0.5862409 0.7808779 -0.2157573 
9.325123 64.9744 -20.13275 -0.7191306 0.6711407 -0.1800596 
9.753942 65.34643 -20.13275 -0.5154516 0.7972612 -0.3141404 
-3.539422 81.55029 30.89661 0.06279261 -0.7139609 -0.6973642 
-3.110602 81.68575 30.84612 0.1511931 -0.6831515 -0.714454 
-12.97342 65.70393 -20.13275 0.3573679 0.9265024 -0.1178198 
-12.5446 65.56583 -20.13275 0.1520152 0.9789507 -0.1361873 
-12.11578 65.57314 -20.13275 0.05166695 0.9733943 -0.2232353 
-11.68696 65.5542 -20.13275 0.1467981 0.9195637 -0.36449 
10.18276 65.52885 -20.13275 -0.3328926 0.8322895 -0.4432569 
10.61158 65.67277 -20.13275 -0.2218687 0.8345405 -0.5042978 
8.108591 60.67368 38.18652 -0.2391109 -0.1203334 -0.9635071 
2.035213 81.68575 30.73703 -0.212949 -0.7470223 -0.62977 
5.036939 69.67885 36.9893 -0.4590919 0.002493977 -0.8883852 
-5.955029 7.929042 27.89488 0.9094163 0.3219565 -0.2632608 
6.323397 16.93422 28.78243 -0.1317497 0.2361091 -0.9627535 
-9.542875 17.36304 28.8169 0.2646629 0.1589251 -0.9511553 
1.608675 81.68575 30.89661 -0.1820678 -0.7589375 -0.6251921 
-6.140592 8.357854 27.89488 0.88855 0.3335272 -0.3150215 
-9.114056 17.36304 28.92512 0.1973391 0.2160423 -0.9562337 
-3.110602 88.97567 18.14235 0.04962495 -0.9607832 -0.2728241 
2.464032 81.43475 30.89661 -0.1707296 -0.7476183 -0.6418086 
2.892851 81.68575 30.49534 -0.1505095 -0.7550284 -0.6381841 
2.892851 81.357 30.89661 -0.1303886 -0.7593026 -0.6375409 
3.82727 8.357854 27.89488 -0.9486915 0.1020763 -0.2992738 
0.5252247 -2.791414 47.62052 -0.9234956 -0.2657995 -0.2765982 
-2.681784 81.73373 30.89661 0.07463555 -0.6818386 -0.7276852 
-3.110602 4.439102 36.47124 0.2760428 -0.7334777 -0.6211368 
-2.252964 82.11459 30.55256 -0.008782765 -0.6672882 -0.7447478 
-9.971694 61.10249 38.10894 0.2964166 -0.01402746 -0.9549558 
-1.824152 81.74986 30.89661 0.1029771 -0.6557644 -0.7479096 
-1.395333 82.11459 30.65001 0.0922621 -0.7084384 -0.6997162 
-3.110602 88.87195 18.46088 0.03728157 -0.9475712 -0.3173625 
-1.395333 81.87121 30.89661 0.1169647 -0.6912463 -0.7130903 
-10.19862 70.96531 35.18479 0.5066236 0.1493262 -0.8491373 
-0.9665138 82.11459 30.67276 -0.04502146 -0.7143779 -0.6983103 
-0.9665138 81.89585 30.89661 -0.05859054 -0.6987032 -0.7130084 
-0.5376948 81.79855 30.89661 -0.1069977 -0.7123152 -0.693656 
-6.283221 8.786674 27.89488 0.9087338 0.2281288 -0.3495139 
-0.1088758 81.75192 30.89661 -0.0008422199 -0.7275657 -0.6860374 
0.3199432 82.11459 30.57589 0.04991324 -0.7403963 -0.6703148 
3.869954 8.786674 27.89488 -0.9382124 0.09475081 -0.3328362 
0.7487622 82.11459 30.60589 -0.05991108 -0.7708882 -0.6341467 
0.7487622 81.84394 30.89661 -0.03068653 -0.7083096 -0.7052346 
-6.541148 9.215492 27.4832 0.9013063 0.2334694 -0.3648823 
-12.97342 76.10236 -20.13275 0.8414212 -0.4915558 0.2244621 
1.177581 81.77444 30.89661 -0.1390501 -0.7340711 -0.6646839 
-12.76898 76.53994 -20.13275 0.8625816 -0.4417543 0.246589 
-9.694736 61.10249 38.18652 0.2602885 -0.02053313 -0.9653125 
-6.362059 9.215492 27.89488 0.9014651 0.1792382 -0.393998 
-5.950736 -2.362595 47.62052 0.9392036 -0.3431988 -0.01055047 
-12.5711 76.96877 -20.13275 0.863319 -0.4523395 0.2237617 
-12.3142 77.39758 -20.13275 0.8550947 -0.4916658 0.1645531 
-12.11578 77.74774 -20.13275 0.8703612 -0.4914989 0.03000212 
3.916121 9.215492 27.89488 -0.9245648 0.1026384 -0.3669406 
-6.016692 -2.362595 39.47297 0.9640476 0.2289573 0.1348739 
-11.88002 78.25523 -20.13275 0.9615208 -0.2436823 -0.1268726 
-11.83001 78.68404 -20.13275 0.9732371 0.02248098 -0.2287012 
-11.87321 79.11285 -20.13275 0.9175322 0.2615854 -0.2995124 
-12.07556 79.54166 -20.13275 0.7905061 0.4733488 -0.38864 
-6.445293 9.644311 27.89488 0.876816 0.1815033 -0.445253 
-12.84736 80.39931 -20.13275 0.5911093 0.650879 -0.4763889 
-12.5446 80.12881 -20.13275 0.6471354 0.601285 -0.4686918 
2.892851 4.63393 18.8897 0.4810799 0.7090205 -0.5156084 
0.7106529 4.498496 36.47124 -0.3772916 -0.6772479 -0.6316537 
0.3722444 -2.362595 47.62052 -0.8921466 -0.3612677 -0.2712199 
3.963508 9.644311 27.89488 -0.9005247 0.1074347 -0.4213229 
7.896613 61.10249 38.18652 -0.2453725 -0.1091634 -0.963263 
-5.040253 -4.935503 42.04588 0.8202064 0.5274683 -0.2214465 
5.036939 82.97221 -20.28309 -0.02236252 -0.9316263 0.3627293 
5.894578 82.97221 -20.52172 0.3130581 -0.8202059 0.4788077 
2.035213 83.29536 -20.13275 -0.3221197 -0.9459513 0.0376175 
1.832359 83.40102 -20.13275 -0.4628941 -0.8812125 0.09588324 
2.464032 83.23121 -20.13275 -0.07295735 -0.996639 0.03725424 
2.892851 83.24036 -20.13275 0.02530087 -0.9995119 0.01832417 
3.32167 83.26495 -20.13275 -0.04784486 -0.9983844 0.03065196 
3.750489 83.20506 -20.13275 -0.1581537 -0.9831205 0.09198576 
4.179308 83.12562 -20.13275 -0.1570025 -0.9701244 0.1849565 
4.60812 83.06461 -20.13275 -0.1052556 -0.9579721 0.2668533 
5.465758 83.06172 -20.13275 0.1381035 -0.9279396 0.3462016 
5.894578 83.16066 -20.13275 0.2964323 -0.8986899 0.3232403 
6.323397 83.3327 -20.13275 0.4792478 -0.8239301 0.3024244 
-1.824152 83.82987 -20.4955 -0.1371591 -0.9431027 0.302894 
-2.681784 88.97567 18.20654 0.07180516 -0.9518215 -0.2981271 
-0.1088758 83.82987 -20.55756 -0.1091805 -0.9332145 0.3423308 
-4.825879 -5.269476 42.04588 0.7761055 0.6027062 -0.1854869 
1.177581 83.71076 -20.13275 -0.3522444 -0.8740839 0.3345164 
6.752215 83.68684 -20.13275 0.7429992 -0.6027081 0.2910245 
-4.825879 70.10768 37.15566 0.4398024 -0.04770378 -0.8968267 
-1.824152 83.98376 -20.13275 -0.1439544 -0.8631655 0.4839653 
-1.395333 83.99526 -20.13275 0.0906799 -0.8570693 0.507158 
-0.9665138 84.08232 -20.13275 0.09641089 -0.8375055 0.5378565 
-0.5376948 84.09904 -20.13275 -0.03338779 -0.855322 0.5170199 
-0.1088758 84.04787 -20.13275 -0.1186387 -0.8484194 0.515858 
0.3199432 83.97913 -20.13275 -0.1672257 -0.8451214 0.5077453 
0.7487622 83.86734 -20.13275 -0.2599417 -0.8394529 0.4772307 
7.076675 84.25868 -20.13275 0.9180321 -0.3714451 0.1387282 
-4.024056 84.68749 -20.13275 -0.2598691 -0.842977 0.4710179 
-3.539422 84.58839 -20.13275 -0.1756238 -0.8599923 0.4791341 
-3.110602 84.50269 -20.13275 -0.2299569 -0.8502902 0.4734198 
-2.681784 84.35844 -20.13275 -0.3283108 -0.8186525 0.4711902 
-4.39706 84.83947 -20.13275 -0.4110472 -0.8104211 0.417442 
7.334756 85.1163 -20.13275 0.9593951 -0.2802011 0.03237975 
-5.436094 85.54511 -20.13275 -0.6124676 -0.7765197 0.1479881 
-4.825879 85.12308 -20.13275 -0.5158906 -0.8005186 0.3050032 
7.442605 85.54511 -20.13275 0.9615617 -0.2744624 -0.008332663 
-5.68351 85.74699 -20.13275 -0.6729168 -0.7349439 0.08390797 
-5.89262 85.97395 -20.13275 -0.7506449 -0.6600307 0.02986208 
7.583974 85.97395 -20.13275 0.9267198 -0.3644184 -0.09159395 
-8.685237 17.36304 28.99734 0.1447254 0.2611423 -0.9543895 
-6.112329 86.22636 -20.13275 -0.7478303 -0.66323 -0.02959182 
7.779735 86.40276 -20.13275 0.8956381 -0.4111907 -0.1695718 
-2.681784 4.927309 36.11747 0.2958254 -0.666509 -0.6842902 
-6.541148 86.70025 -20.13275 -0.7173111 -0.6851892 -0.1264141 
0.7487622 61.5313 39.25198 0.3829564 0.02508113 -0.9234259 
-6.969967 87.2604 -20.50378 -0.7434568 -0.6395479 -0.1955772 
-6.969967 87.13288 -20.13275 -0.7067226 -0.6768636 -0.2059099 
8.038667 86.94918 -20.13275 0.8348581 -0.4883024 -0.2541115 
8.25566 87.2604 -20.13275 0.7848936 -0.5592061 -0.2668905 
-11.25815 87.54988 12.45743 0.48049 -0.8766319 -0.02541574 
-2.681784 88.8881 18.46088 0.05336442 -0.9418424 -0.3317908 
-7.49296 87.68921 -20.13275 -0.6816517 -0.663633 -0.308127 
-2.681784 -4.077871 54.8146 -0.4404013 -0.5157716 -0.7348649 
8.467485 87.68921 -20.42967 0.7862145 -0.5629968 -0.2547575 
8.572836 87.68921 -20.13275 0.7787474 -0.5633054 -0.2761149 
9.015928 87.68921 12.45743 -0.5829042 -0.8049172 -0.1110448 
-10.82933 87.92062 12.45743 0.7056602 -0.7020069 0.09607334 
8.467485 87.99139 12.45743 -0.4336351 -0.8908404 -0.1355147 
8.180676 88.11804 12.45743 -0.3850518 -0.9111414 -0.1468209 
-7.941562 88.11804 -20.13275 -0.6050513 -0.66905 -0.4316076 
8.872731 88.11804 -20.13275 0.7556869 -0.5846447 -0.2951743 
-8.256424 88.54686 -20.31514 -0.583734 -0.5902655 -0.5575314 
-10.40051 88.40327 12.45743 0.6660686 -0.7421564 0.07454251 
-8.441622 88.54686 -20.13275 -0.6041526 -0.5955778 -0.5294211 
-10.19425 88.54686 12.45743 0.5349956 -0.8448068 0.0090026 
7.181034 88.54686 12.18715 -0.34688 -0.923891 -0.161554 
-8.685237 88.97567 -20.2696 -0.6413649 -0.5372858 -0.5476999 
7.181034 88.49753 12.45743 -0.338921 -0.9283895 -0.152399 
-9.114056 89.40448 -20.16932 -0.6038793 -0.5666736 -0.5605451 
7.609853 88.34451 12.45743 -0.354429 -0.9244169 -0.1408313 
9.753942 89.16504 -20.13275 0.6794109 -0.6337894 -0.3697456 
4.006813 10.07313 27.89488 -0.8762904 0.09221032 -0.4728767 
-6.635347 10.50195 27.89488 0.8246385 0.1995012 -0.5293114 
-9.542875 89.83332 -20.19976 -0.4642827 -0.6269102 -0.6256398 
10.18276 89.58196 -20.13275 0.6119483 -0.6746475 -0.4127593 
-9.971694 88.68153 12.45743 0.4829776 -0.875167 -0.0285549 
-10.42946 90.26213 -20.13275 -0.2691796 -0.6224148 -0.7349437 
-9.971694 90.26213 -20.35298 -0.3871692 -0.6366825 -0.6668848 
10.61158 89.96071 -20.13275 0.5834641 -0.6652892 -0.4657895 
-9.362948 88.97567 12.45743 0.4095037 -0.9105909 -0.05595334 
-11.25815 90.69095 -20.25616 -0.2235765 -0.6177056 -0.7539585 
-10.82933 90.69095 -20.3729 -0.2260121 -0.6401327 -0.7342674 
-10.82933 90.40121 -20.13275 -0.2071336 -0.616399 -0.7597025 
5.743731 88.97567 12.45743 -0.2707337 -0.9475797 -0.1696935 
6.323397 88.80247 12.45743 -0.3009727 -0.9402268 -0.1593395 
6.752215 88.655 12.45743 -0.3309488 -0.9304702 -0.1571564 
-12.97342 90.98792 -20.13275 -0.09365657 -0.5688527 -0.8170894 
-12.5446 91.11976 -20.28507 -0.1143903 -0.5933352 -0.7967862 
-12.5446 90.91386 -20.13275 -0.100327 -0.5877808 -0.8027754 
-12.11578 91.11976 -20.35058 -0.1682012 -0.60528 -0.7780388 
-12.11578 90.83456 -20.13275 -0.1444626 -0.5928822 -0.7922255 
-9.114056 89.08167 12.45743 0.3582167 -0.9321276 -0.05309278 
-11.68696 90.70531 -20.13275 -0.2082655 -0.6046351 -0.7687925 
-8.685237 89.22812 12.45743 0.3145772 -0.9480779 -0.04679126 
-8.126147 89.40448 12.45743 0.3052065 -0.9495275 -0.07243299 
-12.97342 91.54857 -20.5374 -0.1243619 -0.5993097 -0.7907984 
3.985477 89.40448 12.45743 -0.2389821 -0.95182 -0.1921617 
4.60812 89.24622 12.45743 -0.2150412 -0.9525314 -0.2155025 
5.036939 89.15747 12.45743 -0.2158917 -0.9520065 -0.2169664 
5.465758 89.05416 12.45743 -0.2499431 -0.9495569 -0.189394 
-7.827605 89.49979 12.45743 0.3003536 -0.949411 -0.09168705 
4.179308 10.50195 27.67594 -0.8538472 0.1028183 -0.5102679 
-7.398786 89.63449 12.45743 0.2791845 -0.955289 -0.09736025 
-6.969967 89.75158 12.45743 0.2508807 -0.9618709 -0.1089182 
0.1776276 -1.933776 47.62052 -0.8411258 -0.4814321 -0.2464357 
-0.1088758 89.49448 12.45743 -0.4302454 -0.9027056 -0.003387332 
0.3199432 89.42764 12.45743 0.1148177 -0.991746 -0.05706828 
-5.68351 -1.852037 47.62052 0.8552059 -0.5122847 -0.07865936 
0.7487622 89.60553 12.45743 0.4139283 -0.9059122 -0.08936714 
-5.450088 -1.504964 47.62052 0.8073212 -0.5843276 -0.0824248 
1.177581 89.82407 12.45743 0.3420471 -0.9355271 -0.08827785 
4.049006 10.50195 27.89488 -0.8571492 0.06533229 -0.5109081 
2.464032 89.77023 12.45743 -0.2366405 -0.962602 -0.1319043 
2.200519 89.83332 12.45743 -0.1962856 -0.9744336 -0.1093213 
2.892851 89.66743 12.45743 -0.2328155 -0.9607393 -0.1509208 
3.32167 89.56816 12.45743 -0.2280662 -0.9578546 -0.1746442 
-10.40051 10.93077 27.47348 0.2299444 0.4956 -0.8375597 
-10.2339 71.82293 35.18479 0.4348551 -0.1489526 -0.8880958 
-9.971694 61.5313 38.08779 0.2936247 -0.07229462 -0.9531831 
-6.541148 89.85606 12.45743 0.2296777 -0.9646187 -0.1294564 
-6.112329 89.95592 12.45743 0.2224187 -0.9642956 -0.1437499 
8.038667 61.5313 38.10048 -0.2509235 -0.09434658 -0.9633982 
-1.019569 54.24141 -19.70393 0.1268588 0.9900544 0.06082076 
-9.542875 10.93077 27.57439 0.04057665 0.4341165 -0.8999424 
-0.5376948 54.21329 -19.70393 -0.03703468 0.995248 0.09005444 
-5.68351 90.05459 12.45743 0.200301 -0.9681055 -0.1505031 
-5.254691 90.13725 12.45743 0.1639581 -0.9744903 -0.1532526 
-4.825879 90.19708 12.45743 0.1218196 -0.9816049 -0.1470092 
-2.252964 54.57962 -19.70393 0.3766675 0.9175886 0.1270935 
-1.824152 54.43602 -19.70393 0.2998855 0.9526212 0.05080856 
-1.395333 54.30613 -19.70393 0.2303271 0.97254 0.03339766 
-0.1088758 54.2661 -19.70393 -0.1486919 0.9854052 0.08286884 
0.3199432 54.34807 -19.70393 -0.1938017 0.9781722 0.07496802 
0.7487622 54.43845 -19.70393 -0.2017336 0.9772856 0.06493436 
1.177581 54.52147 -19.70393 -0.2542902 0.9664688 0.03570128 
1.625084 54.67022 -19.70393 -0.4332551 0.9010257 0.02104163 
-4.39706 90.24171 12.45743 0.106261 -0.9837166 -0.1449492 
-3.110602 55.09904 -19.98637 0.4968447 0.8523774 0.1630892 
-2.681784 54.78616 -19.70393 0.4503579 0.8786859 0.1583946 
2.035213 54.92996 -19.70393 -0.5564082 0.8286738 0.06090533 
2.271555 55.09904 -19.70393 -0.592206 0.7976928 0.1139221 
-0.5376948 89.88446 12.45743 -0.6728189 -0.7388099 -0.0384005 
1.606394 89.92646 12.45743 0.06287954 -0.9932356 -0.09761837 
-3.885236 55.52785 -19.70393 0.5723232 0.7975409 0.1907214 
-3.539422 55.28071 -19.70393 0.5377921 0.8259572 0.1690393 
2.464032 55.26103 -19.70393 -0.6254372 0.7605496 0.1743348 
-3.96824 90.2893 12.45743 0.1214837 -0.9835265 -0.1338552 
-3.539422 90.3506 12.45743 0.1276703 -0.9821064 -0.1384468 
-3.110602 90.40266 12.45743 0.1019203 -0.9851265 -0.13834 
-4.39706 55.95666 -19.88545 0.6034513 0.7633864 0.2304078 
-2.681784 90.43922 12.45743 0.05941691 -0.9889815 -0.1355914 
2.892851 55.6284 -19.70393 -0.634397 0.7090622 0.3078494 
-2.252964 90.45427 12.45743 0.0166366 -0.9910758 -0.1322573 
7.754099 61.5313 38.18652 -0.2892448 -0.0624377 -0.9552168 
-1.824152 90.45338 12.45743 -0.03508305 -0.9898878 -0.1374458 
-1.395333 90.41908 12.45743 -0.2174904 -0.9701132 -0.1076026 
-4.825879 56.26368 -19.70393 0.6287966 0.742928 0.2295056 
-9.114056 10.93077 27.57353 -0.04049537 0.4431953 -0.8955099 
-2.252964 4.78684 36.47124 0.2735222 -0.7044756 -0.6549044 
-5.462049 56.81431 -19.70393 0.6906876 0.6984873 0.1872596 
-5.254691 56.62627 -19.70393 0.6531489 0.7289864 0.2048783 
4.234523 56.81431 -19.70393 -0.6031692 0.694445 0.392343 
-5.68351 57.05151 -19.70393 0.7744073 0.607744 0.1758992 
2.892851 3.660801 29.61016 -0.8151898 0.4892174 0.3100513 
4.60812 57.24312 -19.84361 -0.6331394 0.6478221 0.4236285 
